# .PCD v.7 - Point Cloud Data file format
VERSION .7
FIELDS x y z
SIZE 4 4 4
TYPE F F F
COUNT 1 1 1
WIDTH 837
HEIGHT 1
VIEWPOINT 0 0 0 1 0 0 0
POINTS 837
DATA ascii
0.041865 -0.264962 -0.95294
0.049192 -0.247753 -0.961942
-0.246606 -0.257939 -0.902313
0.038404 -0.270916 -0.912351
0.063596 -0.270214 -0.918175
0.045451 -0.245369 -0.914342
0.085103 -0.23996 -0.932691
0.021199 -0.317241 -0.862749
0.086433 -0.300885 -0.851534
-0.266439 -0.271852 -0.870971
-0.235339 -0.259031 -0.86719
-0.198513 -0.257004 -0.851119
0.034589 -0.279352 -0.873054
0.07702 -0.271329 -0.872429
0.1244 -0.265364 -0.864595
0.153757 -0.256527 -0.867246
-0.026521 -0.240002 -0.854689
0.081698 -0.241627 -0.89379
0.117048 -0.248745 -0.86904
0.153501 -0.247319 -0.858155
-0.008718 -0.357378 -0.821529
0.018031 -0.352956 -0.821914
0.076453 -0.353826 -0.809442
0.111628 -0.350087 -0.807656
-0.010603 -0.329504 -0.80785
0.022362 -0.328607 -0.827199
0.074745 -0.326632 -0.82128
0.119496 -0.318366 -0.816651
-0.259204 -0.281376 -0.822611
-0.229103 -0.265223 -0.820569
-0.186476 -0.25834 -0.818319
-0.052799 -0.255134 -0.800444
-0.021853 -0.274058 -0.816664
0.023048 -0.287119 -0.839704
0.072184 -0.290539 -0.840828
0.130108 -0.274906 -0.831741
0.15738 -0.265783 -0.814811
-0.058652 -0.237208 -0.804157
-0.035357 -0.236872 -0.826801
0.141117 -0.242824 -0.826456
0.157584 -0.242291 -0.809269
-0.063017 -0.351231 -0.752205
-0.022723 -0.354532 -0.768261
0.023086 -0.35943 -0.777641
0.072994 -0.355213 -0.785697
0.117705 -0.352644 -0.78129
-0.255307 -0.332127 -0.760834
-0.230114 -0.314137 -0.767104
-0.173656 -0.309827 -0.758367
-0.123775 -0.305933 -0.752368
-0.069699 -0.32149 -0.768004
-0.03061 -0.337014 -0.786282
0.027623 -0.345997 -0.778962
0.076524 -0.347019 -0.769991
0.130733 -0.334716 -0.777776
0.153915 -0.31544 -0.764515
-0.253436 -0.293798 -0.79597
-0.223764 -0.28519 -0.7915
-0.172885 -0.279394 -0.781037
-0.124589 -0.276014 -0.765552
-0.077031 -0.276038 -0.774123
-0.029408 -0.288032 -0.793475
0.144703 -0.274493 -0.784774
0.159416 -0.27123 -0.765184
-0.112644 -0.242172 -0.784801
-0.077829 -0.239655 -0.790101
0.170172 -0.226534 -0.773384
-0.062289 -0.352019 -0.720859
-0.02263 -0.355963 -0.722045
0.026814 -0.358725 -0.726283
0.069431 -0.359329 -0.720864
-0.226096 -0.33612 -0.729766
-0.175281 -0.331742 -0.727663
-0.125075 -0.327267 -0.731735
-0.083601 -0.340296 -0.736011
-0.030016 -0.34625 -0.73836
0.084397 -0.346455 -0.73098
0.127981 -0.336805 -0.729744
0.153252 -0.311913 -0.730416
0.278604 -0.30448 -0.703921
0.165311 -0.277295 -0.721671
0.28578 -0.26829 -0.7179
0.18305 -0.236783 -0.737683
0.283889 -0.232752 -0.737009
0.317884 -0.23765 -0.716843
0.530601 -0.1702 -0.70487
0.562875 -0.167765 -0.702962
0.52906 -0.130593 -0.707058
0.569157 -0.138417 -0.701096
0.534058 -0.096581 -0.700984
-0.008117 -0.355434 -0.699419
-0.203331 -0.335588 -0.696299
-0.170187 -0.336749 -0.698461
-0.125756 -0.339087 -0.686917
-0.089581 -0.346956 -0.696764
0.017837 -0.346856 -0.693753
0.143379 -0.330509 -0.69352
0.154662 -0.310347 -0.694605
0.285484 -0.317964 -0.666191
0.159008 -0.288181 -0.69612
0.294878 -0.277228 -0.67436
0.303804 -0.258572 -0.676979
0.28301 -0.216554 -0.674937
0.321073 -0.228266 -0.668353
0.493003 -0.200663 -0.676279
0.429256 -0.182334 -0.655323
0.468646 -0.170421 -0.671632
0.509152 -0.177095 -0.693527
0.585384 -0.170465 -0.696065
0.628077 -0.171446 -0.687171
0.671069 -0.174449 -0.671146
0.710207 -0.183465 -0.650583
0.256648 -0.141345 -0.672772
0.442747 -0.125762 -0.656332
0.474016 -0.123097 -0.676925
0.503397 -0.127558 -0.697104
0.582895 -0.128592 -0.692439
0.622377 -0.12521 -0.678983
0.668221 -0.126494 -0.661096
0.443101 -0.081097 -0.657185
0.471782 -0.089593 -0.675805
0.510022 -0.090381 -0.694033
0.595326 -0.092143 -0.673691
0.621851 -0.094565 -0.671138
0.669972 -0.097225 -0.656487
0.268681 -0.359722 -0.618648
0.861341 -0.362993 -0.603857
0.285683 -0.327346 -0.624174
0.302047 -0.316182 -0.644143
0.291689 -0.270945 -0.63112
0.300344 -0.255502 -0.6477
0.842916 -0.264699 -0.602237
0.854972 -0.290605 -0.604091
0.288023 -0.227235 -0.618946
0.310812 -0.211542 -0.629615
0.832262 -0.232929 -0.602531
0.222658 -0.16661 -0.614492
0.271796 -0.180129 -0.615484
0.330083 -0.182579 -0.617742
0.374415 -0.162672 -0.62053
0.416958 -0.173193 -0.639267
0.699309 -0.167429 -0.648417
0.725064 -0.170445 -0.641209
0.767123 -0.174215 -0.632231
0.824527 -0.17475 -0.611513
0.26297 -0.148583 -0.646806
0.337378 -0.132827 -0.634988
0.379823 -0.125715 -0.632371
0.416203 -0.130154 -0.64307
0.694383 -0.119834 -0.646104
0.722747 -0.125749 -0.633869
0.7744 -0.123093 -0.62192
0.817481 -0.128651 -0.607474
0.416912 -0.089708 -0.644157
0.720208 -0.096496 -0.632315
0.781515 -0.091956 -0.612046
0.807441 -0.095163 -0.6035
0.27056 -0.486801 -0.559059
0.254507 -0.414109 -0.559931
0.245696 -0.365589 -0.589782
0.270637 -0.369072 -0.5772
0.847044 -0.360511 -0.552087
0.86181 -0.364236 -0.580638
0.273261 -0.32992 -0.573372
0.864937 -0.322906 -0.570598
0.270889 -0.275947 -0.574156
0.847144 -0.258479 -0.596819
0.866144 -0.272505 -0.574809
0.195227 -0.213438 -0.552914
0.231437 -0.216727 -0.558261
0.271105 -0.225985 -0.576157
0.315327 -0.207365 -0.574878
0.8453 -0.226246 -0.598471
0.863895 -0.225926 -0.578137
0.196177 -0.181631 -0.553844
0.225126 -0.187951 -0.573146
0.254405 -0.189495 -0.585031
0.326508 -0.186729 -0.576786
0.368983 -0.174804 -0.584977
0.848627 -0.170992 -0.599007
0.8629 -0.173529 -0.577423
0.838702 -0.123037 -0.592995
0.860008 -0.127694 -0.56711
0.833592 -0.098422 -0.590418
0.859978 -0.077553 -0.558287
0.197571 -0.480084 -0.502545
0.227531 -0.473377 -0.524184
0.274424 -0.477948 -0.52217
0.316226 -0.471461 -0.521306
0.237768 -0.412258 -0.518902
0.260828 -0.411064 -0.51529
0.236337 -0.373901 -0.511315
0.267112 -0.372985 -0.509719
0.845514 -0.351318 -0.515801
0.860026 -0.3513 -0.536171
0.186892 -0.310215 -0.503979
0.225305 -0.32013 -0.518797
0.270416 -0.327973 -0.525654
0.301673 -0.3242 -0.501964
0.528301 -0.307523 -0.50773
0.811842 -0.34167 -0.506274
0.878493 -0.331619 -0.525944
0.905441 -0.309923 -0.505084
0.137262 -0.27792 -0.505623
0.170277 -0.271498 -0.518078
0.222667 -0.272689 -0.532395
0.272654 -0.276119 -0.527115
0.305797 -0.273789 -0.502176
0.444753 -0.289824 -0.500551
0.474166 -0.291329 -0.504493
0.522874 -0.28976 -0.505153
0.893179 -0.274431 -0.537493
0.908282 -0.273685 -0.511087
0.140611 -0.226853 -0.529406
0.173357 -0.226764 -0.535257
0.222611 -0.219207 -0.54108
0.274945 -0.225666 -0.53001
0.303262 -0.230582 -0.504221
0.892633 -0.222729 -0.532132
0.905658 -0.224544 -0.510662
0.13561 -0.196484 -0.546904
0.173535 -0.183741 -0.535944
0.223524 -0.190921 -0.536915
0.286129 -0.187607 -0.507868
0.303032 -0.190523 -0.504263
0.887452 -0.175649 -0.527353
0.903749 -0.187988 -0.503931
0.878632 -0.125472 -0.522025
0.87864 -0.070663 -0.527263
0.231146 -0.500962 -0.46255
0.178192 -0.487218 -0.472479
0.229108 -0.492942 -0.485487
0.275215 -0.480478 -0.472926
0.317375 -0.459097 -0.480821
-0.227143 -0.413863 -0.451983
0.147086 -0.421841 -0.452632
0.173476 -0.413131 -0.472272
0.282435 -0.41203 -0.484894
0.327382 -0.426463 -0.481366
0.366795 -0.422632 -0.469603
0.403068 -0.402877 -0.454526
-0.218056 -0.370857 -0.450861
-0.172 -0.352437 -0.451176
-0.121229 -0.36348 -0.452104
-0.074509 -0.376343 -0.45637
-0.026159 -0.375196 -0.46087
0.027042 -0.370243 -0.467376
0.065669 -0.366714 -0.463252
0.13358 -0.367131 -0.4543
0.18012 -0.372784 -0.477095
0.221174 -0.37208 -0.49255
0.275668 -0.375236 -0.489094
0.323475 -0.373563 -0.492855
0.376865 -0.379485 -0.4765
0.416626 -0.370622 -0.4571
0.4559 -0.355124 -0.450458
-0.21213 -0.31636 -0.451899
-0.172799 -0.317866 -0.457036
-0.12592 -0.316883 -0.458623
-0.0742 -0.322514 -0.465462
-0.028752 -0.328939 -0.478659
0.017685 -0.327764 -0.489441
0.079375 -0.326496 -0.475163
0.122399 -0.322018 -0.464486
0.171259 -0.332023 -0.484252
0.210468 -0.347748 -0.49911
0.324144 -0.322958 -0.490227
0.376202 -0.325657 -0.471542
0.425459 -0.321432 -0.466335
0.473007 -0.324793 -0.464637
0.516633 -0.310658 -0.474172
0.821516 -0.334988 -0.481069
0.883551 -0.339306 -0.484828
0.919412 -0.326564 -0.467493
0.968032 -0.333123 -0.463787
-0.211867 -0.287428 -0.453865
-0.179016 -0.270021 -0.461818
-0.121226 -0.270779 -0.4666
-0.074371 -0.27773 -0.473008
-0.037609 -0.298244 -0.483979
0.127501 -0.289278 -0.491087
0.325359 -0.27453 -0.488672
0.380255 -0.277226 -0.475794
0.426311 -0.278814 -0.480084
0.475614 -0.282122 -0.476923
0.512549 -0.288529 -0.475951
0.927612 -0.277865 -0.470882
0.331714 -0.230016 -0.484895
0.37262 -0.230589 -0.468711
0.425365 -0.223469 -0.459774
0.460539 -0.225429 -0.452024
0.925391 -0.225623 -0.471228
0.285016 -0.169188 -0.490046
0.316892 -0.172538 -0.476546
0.363357 -0.171723 -0.45679
0.895449 -0.155207 -0.499961
0.916603 -0.175599 -0.475122
0.272279 -0.148296 -0.487092
0.309486 -0.149533 -0.468848
0.893349 -0.122763 -0.489122
0.908055 -0.126745 -0.462774
0.894142 -0.077705 -0.483257
0.900834 -0.071976 -0.455996
0.897098 -0.0498 -0.489178
0.901256 -0.04696 -0.462797
-0.228493 -0.509475 -0.415748
-0.164159 -0.500111 -0.405525
0.189864 -0.502017 -0.423517
0.217727 -0.503958 -0.428828
-0.217681 -0.486141 -0.42925
-0.172576 -0.481935 -0.428224
-0.12783 -0.480674 -0.427667
-0.074948 -0.475496 -0.42512
-0.031492 -0.466515 -0.414688
0.020181 -0.45777 -0.401745
0.077312 -0.456516 -0.401922
0.125507 -0.466857 -0.413092
0.166431 -0.490531 -0.423989
0.247433 -0.495985 -0.432108
0.276322 -0.476003 -0.42418
0.32617 -0.456144 -0.424492
0.373276 -0.459261 -0.417907
0.422776 -0.460879 -0.412917
0.467068 -0.453897 -0.411709
-0.213822 -0.433743 -0.447745
-0.179279 -0.433154 -0.444257
-0.128313 -0.426096 -0.446016
-0.074933 -0.427436 -0.44473
-0.019606 -0.425863 -0.432148
0.026591 -0.426497 -0.421675
0.078829 -0.432782 -0.418011
0.122662 -0.425802 -0.433174
0.371027 -0.446816 -0.441223
0.42705 -0.424199 -0.424508
0.476073 -0.419053 -0.409752
0.513191 -0.423002 -0.409311
-0.209441 -0.390625 -0.449386
-0.177617 -0.380541 -0.447337
-0.133966 -0.384879 -0.447932
0.035114 -0.393704 -0.447197
0.075454 -0.390242 -0.444211
0.120301 -0.382142 -0.445708
0.434557 -0.38283 -0.438261
0.479851 -0.377003 -0.429324
0.517485 -0.372543 -0.4171
0.973875 -0.354025 -0.442768
1.017596 -0.361814 -0.439303
-0.223699 -0.317528 -0.449308
0.489961 -0.342922 -0.446616
0.5262 -0.325339 -0.425497
0.883189 -0.340524 -0.445084
0.94115 -0.331672 -0.448025
0.972069 -0.327969 -0.438349
1.012078 -0.32707 -0.430606
0.523666 -0.277836 -0.430175
0.706962 -0.294868 -0.400078
0.944271 -0.270297 -0.446813
0.968407 -0.279015 -0.436731
0.482439 -0.218645 -0.442177
0.519056 -0.227079 -0.419407
0.942418 -0.221716 -0.444458
0.955009 -0.229792 -0.438788
0.394659 -0.16695 -0.446457
0.426877 -0.174235 -0.442318
0.477545 -0.179402 -0.427129
0.516572 -0.176416 -0.407586
0.574403 -0.15423 -0.402044
0.934707 -0.176633 -0.441271
0.916298 -0.12323 -0.428452
0.904883 -0.081674 -0.430498
-0.261264 -0.562722 -0.352508
-0.213892 -0.508759 -0.374254
-0.175344 -0.502751 -0.374041
-0.130135 -0.502508 -0.377905
-0.090118 -0.501068 -0.36264
0.176084 -0.5053 -0.366518
0.212683 -0.504751 -0.372279
-0.065563 -0.497925 -0.372425
-0.020063 -0.487603 -0.378656
0.026913 -0.475651 -0.378756
0.077448 -0.477289 -0.374318
0.124744 -0.487597 -0.3758
0.164401 -0.498998 -0.385992
0.236049 -0.495091 -0.375163
0.270736 -0.473368 -0.375909
0.328894 -0.455843 -0.384852
0.369923 -0.453641 -0.385374
0.426694 -0.456155 -0.390416
0.471231 -0.45507 -0.390009
0.527707 -0.456057 -0.368155
0.579322 -0.461042 -0.359303
0.604267 -0.457624 -0.353594
0.319526 -0.445462 -0.350105
0.362814 -0.449241 -0.374928
0.435539 -0.433332 -0.379226
0.474685 -0.431124 -0.382075
0.521613 -0.428767 -0.385435
0.575422 -0.428929 -0.369429
0.616575 -0.422714 -0.358038
0.491287 -0.387564 -0.384476
0.532841 -0.382287 -0.388701
0.577898 -0.370832 -0.380523
0.629888 -0.374715 -0.363708
0.657403 -0.359443 -0.35712
0.545084 -0.300594 -0.395618
0.572258 -0.324929 -0.390898
0.631193 -0.329821 -0.373046
0.67418 -0.319446 -0.366035
0.712424 -0.304047 -0.360219
0.542112 -0.279344 -0.396621
0.577157 -0.279447 -0.385506
0.621206 -0.281528 -0.374817
0.673647 -0.29348 -0.381317
0.717402 -0.295567 -0.377692
0.54288 -0.227307 -0.397863
0.574098 -0.226601 -0.383858
0.603116 -0.225902 -0.376565
0.543608 -0.183212 -0.395435
0.57238 -0.179252 -0.390006
0.604301 -0.172066 -0.390171
-0.265466 -0.558756 -0.32527
-0.255954 -0.542827 -0.329309
-0.228006 -0.515828 -0.323386
-0.170535 -0.500869 -0.324481
-0.126205 -0.500878 -0.332769
-0.090352 -0.500166 -0.336493
0.142463 -0.500318 -0.320773
0.177078 -0.509118 -0.327263
0.215929 -0.508747 -0.325165
-0.172511 -0.49969 -0.313716
-0.107607 -0.499591 -0.309248
-0.069861 -0.498857 -0.32719
-0.026141 -0.496425 -0.326376
0.028635 -0.492169 -0.32304
0.076501 -0.489569 -0.326237
0.120265 -0.4946 -0.325863
0.242356 -0.489921 -0.330674
0.267203 -0.46384 -0.322612
0.478726 -0.454095 -0.320379
0.532381 -0.469718 -0.326073
0.577213 -0.47707 -0.328783
0.622925 -0.472057 -0.324979
0.663994 -0.458303 -0.314188
0.288815 -0.444624 -0.322449
0.3253 -0.43704 -0.321835
0.378114 -0.432122 -0.309916
0.440248 -0.430462 -0.307296
0.471137 -0.43907 -0.333071
0.641736 -0.427317 -0.345554
0.671444 -0.428737 -0.322352
0.681099 -0.377997 -0.329895
0.704125 -0.356505 -0.306383
0.692416 -0.337553 -0.338769
0.722568 -0.319599 -0.320838
0.75787 -0.303302 -0.304033
0.749525 -0.299329 -0.325333
0.765215 -0.292996 -0.315223
-0.283433 -0.558721 -0.27069
-0.261098 -0.538309 -0.269697
-0.22664 -0.514868 -0.271838
-0.178544 -0.501275 -0.269914
-0.123316 -0.501485 -0.268126
-0.075417 -0.501782 -0.265905
-0.047554 -0.500705 -0.262298
0.14344 -0.500756 -0.278145
0.178544 -0.509866 -0.275431
0.216361 -0.507483 -0.274963
-0.160151 -0.499524 -0.28165
-0.130658 -0.499797 -0.292361
-0.070747 -0.498809 -0.292187
-0.020067 -0.497792 -0.275437
0.029169 -0.495359 -0.275903
0.078034 -0.492238 -0.27324
0.120318 -0.495054 -0.276578
0.240717 -0.48612 -0.273595
0.265138 -0.463043 -0.27477
0.483654 -0.464455 -0.285754
0.518976 -0.482219 -0.275641
0.571946 -0.491384 -0.275516
0.624668 -0.490498 -0.277325
0.681601 -0.477963 -0.275158
0.710922 -0.468035 -0.258937
0.291159 -0.445209 -0.274931
0.323553 -0.43887 -0.270502
0.373079 -0.426857 -0.27435
0.422242 -0.420952 -0.275342
0.458921 -0.443589 -0.286855
0.693989 -0.425794 -0.295882
0.719076 -0.423788 -0.267744
0.721976 -0.37762 -0.275252
0.76798 -0.363937 -0.255045
0.729272 -0.338236 -0.283302
0.775109 -0.320114 -0.270773
0.818802 -0.311449 -0.2609
0.777997 -0.298545 -0.293475
-0.129064 -1.354165 -0.229624
-0.161296 -1.308514 -0.209879
-0.131795 -1.323674 -0.220306
-0.086891 -1.307335 -0.228974
-0.175103 -1.291063 -0.221105
-0.142257 -1.288765 -0.218402
-0.070955 -1.290126 -0.222528
0.020137 -1.264698 -0.200734
-0.294599 -0.5576 -0.228626
-0.270356 -0.535506 -0.221681
-0.223295 -0.516033 -0.21795
-0.173447 -0.508907 -0.21933
-0.127199 -0.509193 -0.223262
-0.079723 -0.508636 -0.225264
-0.028866 -0.504068 -0.226698
0.017125 -0.501628 -0.21995
0.142601 -0.501433 -0.235097
0.173332 -0.504739 -0.228792
0.204307 -0.502705 -0.240747
0.630444 -0.502567 -0.205038
0.669949 -0.501613 -0.207423
-0.00785 -0.499688 -0.247239
0.030453 -0.499057 -0.233635
0.072574 -0.497095 -0.228549
0.121107 -0.498401 -0.222681
0.18945 -0.497695 -0.206002
0.227847 -0.482649 -0.222956
0.271096 -0.458434 -0.22378
0.315708 -0.451005 -0.209833
0.4978 -0.488209 -0.230974
0.52886 -0.493213 -0.226593
0.571748 -0.494956 -0.229528
0.624118 -0.496658 -0.233489
0.680816 -0.494721 -0.231463
0.726494 -0.480052 -0.225703
0.772509 -0.465729 -0.218401
0.805191 -0.457859 -0.208019
0.294027 -0.448729 -0.240356
0.329935 -0.442256 -0.226586
0.375763 -0.417778 -0.225641
0.414941 -0.40573 -0.222132
0.741958 -0.438602 -0.247441
0.778718 -0.430005 -0.238067
0.820512 -0.428315 -0.214409
0.78689 -0.382588 -0.246241
0.828363 -0.373501 -0.221225
0.850818 -0.351094 -0.207055
0.827226 -0.3338 -0.236633
0.863299 -0.321368 -0.212318
-0.162818 -1.307 -0.189914
0.030094 -1.302147 -0.15293
0.070915 -1.301752 -0.155208
-0.183589 -1.298907 -0.190203
-0.01084 -1.292037 -0.179809
0.030449 -1.283791 -0.179681
0.071318 -1.276412 -0.180901
0.114262 -1.276899 -0.167187
0.075786 -1.237586 -0.190889
0.105551 -1.235114 -0.182805
-0.242378 -1.057161 -0.175024
-0.252259 -1.021491 -0.152985
-0.237613 -1.023829 -0.177832
-0.253357 -0.966435 -0.154831
-0.239187 -0.974924 -0.180223
-0.256085 -0.921513 -0.164147
-0.236459 -0.921932 -0.192765
-0.26922 -0.869185 -0.166825
-0.244506 -0.87222 -0.189991
-0.276803 -0.825678 -0.174707
-0.272433 -0.774616 -0.179892
-0.247101 -0.767981 -0.176595
-0.306328 -0.654036 -0.150832
-0.284578 -0.661791 -0.160424
-0.304035 -0.622289 -0.16075
-0.292463 -0.633593 -0.160006
-0.300582 -0.571738 -0.177711
-0.283903 -0.559713 -0.162265
-0.271761 -0.539858 -0.178034
-0.227323 -0.523461 -0.173466
-0.178424 -0.514139 -0.177184
-0.12917 -0.513827 -0.176387
-0.078396 -0.515298 -0.178944
-0.025884 -0.516281 -0.170897
0.023851 -0.507287 -0.178129
0.06758 -0.500988 -0.179651
0.1692 -0.500024 -0.195346
0.491162 -0.500648 -0.150288
0.532965 -0.500774 -0.157539
0.576853 -0.503882 -0.166346
0.627373 -0.506521 -0.175311
0.673367 -0.503366 -0.174868
0.725089 -0.5017 -0.159873
0.092519 -0.499594 -0.165436
0.123832 -0.498241 -0.175615
0.176161 -0.495605 -0.170363
0.227522 -0.476796 -0.179003
0.2773 -0.462278 -0.175089
0.317544 -0.457411 -0.170058
0.44391 -0.468711 -0.161801
0.476015 -0.493003 -0.16853
0.522153 -0.496868 -0.179679
0.561359 -0.498002 -0.186987
0.679581 -0.498687 -0.198566
0.728066 -0.496872 -0.185382
0.770202 -0.491881 -0.172847
0.822236 -0.467984 -0.176925
0.859409 -0.457656 -0.155035
0.338116 -0.445285 -0.182755
0.375333 -0.425504 -0.172504
0.415653 -0.424056 -0.172684
0.838975 -0.443937 -0.190844
0.863813 -0.422302 -0.168607
0.869119 -0.372325 -0.173937
0.876631 -0.334365 -0.179458
0.029984 -1.308863 -0.121227
0.074904 -1.312378 -0.126702
0.112041 -1.30794 -0.127462
-0.007611 -1.298036 -0.132953
0.009934 -1.299561 -0.149891
0.125436 -1.295455 -0.146229
-0.260218 -0.972856 -0.124896
-0.269626 -0.926653 -0.123681
-0.358325 -0.853039 -0.124087
-0.31523 -0.863282 -0.119451
-0.285819 -0.884101 -0.129736
-0.360109 -0.844023 -0.138617
-0.335002 -0.838713 -0.139154
-0.30764 -0.66581 -0.146395
-0.201729 -0.603948 -0.116076
-0.175357 -0.614819 -0.10657
-0.258483 -0.570051 -0.143178
-0.226673 -0.573234 -0.128021
-0.177412 -0.5721 -0.107697
-0.214355 -0.537063 -0.139323
-0.176299 -0.531047 -0.129645
-0.125704 -0.522777 -0.125879
-0.073964 -0.521485 -0.127394
-0.020285 -0.523867 -0.138741
0.019836 -0.517751 -0.130473
0.060952 -0.504059 -0.128246
0.485253 -0.50167 -0.12171
0.522823 -0.503896 -0.127766
0.572864 -0.50947 -0.126363
0.623789 -0.508697 -0.123578
0.679543 -0.502455 -0.120818
0.727095 -0.501605 -0.125946
0.762975 -0.500532 -0.117606
0.091511 -0.498649 -0.126201
0.124413 -0.496641 -0.122976
0.171523 -0.495076 -0.125243
0.221581 -0.48852 -0.12681
0.274526 -0.482011 -0.123676
0.327201 -0.473742 -0.12246
0.372253 -0.460336 -0.121031
0.428414 -0.47678 -0.12199
0.462444 -0.495293 -0.12486
0.782609 -0.498908 -0.130303
0.825257 -0.492015 -0.129574
0.872337 -0.468607 -0.129742
0.376672 -0.441881 -0.145494
0.408454 -0.448078 -0.140839
0.886623 -0.433001 -0.136024
0.889461 -0.385626 -0.142395
0.033462 -1.314068 -0.085827
0.077344 -1.319851 -0.085856
-0.001335 -1.298138 -0.096304
-0.26519 -0.970431 -0.096069
-0.279175 -0.927623 -0.090128
-0.320957 -0.879837 -0.08742
-0.295185 -0.893569 -0.097683
-0.155433 -0.610523 -0.098671
-0.123951 -0.614999 -0.087492
-0.072182 -0.612505 -0.06676
-0.044569 -0.623923 -0.055736
-0.158092 -0.575167 -0.098438
-0.129227 -0.575448 -0.088548
-0.077186 -0.577029 -0.069416
-0.040887 -0.575051 -0.054141
-0.121013 -0.545136 -0.094572
-0.076804 -0.53869 -0.087454
-0.029258 -0.540129 -0.066351
0.014565 -0.521766 -0.072295
0.074161 -0.504005 -0.084012
0.49027 -0.500068 -0.094585
0.526907 -0.502552 -0.079539
0.573251 -0.507094 -0.075622
0.628577 -0.504464 -0.072507
0.674848 -0.501708 -0.079002
0.725655 -0.501092 -0.080496
0.831619 -0.500122 -0.068778
0.091286 -0.499278 -0.079253
0.12667 -0.496108 -0.072709
0.170263 -0.492516 -0.073352
0.227357 -0.49134 -0.079193
0.274794 -0.491136 -0.070965
0.326026 -0.487151 -0.071784
0.375362 -0.478389 -0.074203
0.423802 -0.481994 -0.074307
0.472357 -0.49285 -0.071078
0.504174 -0.496601 -0.062658
0.749186 -0.499468 -0.070497
0.776113 -0.498948 -0.071834
0.823421 -0.499141 -0.072588
0.863058 -0.492482 -0.081739
0.290203 -1.312312 -0.017747
0.314182 -1.305275 -0.013857
0.299883 -1.2985 -0.041057
0.329966 -1.291807 -0.031099
0.362892 -1.273512 -0.026285
-0.014966 -0.609481 -0.042942
0.02579 -0.605492 -0.027173
0.079957 -0.612171 -0.008485
-0.011533 -0.57713 -0.043713
0.023682 -0.57314 -0.030459
0.073648 -0.579527 -0.010299
0.024498 -0.535251 -0.042366
0.078851 -0.520209 -0.02921
0.119576 -0.51543 -0.017629
0.157058 -0.506082 -0.0102
0.582977 -0.502327 -0.038624
0.624073 -0.501724 -0.023502
0.676454 -0.50184 -0.021798
0.711013 -0.500738 -0.027598
0.825606 -0.503718 -0.020638
0.139177 -0.498154 -0.037574
0.180158 -0.493885 -0.031031
0.2289 -0.48905 -0.030544
0.271252 -0.490204 -0.023501
0.334959 -0.489162 -0.030676
0.374819 -0.484753 -0.021774
0.425284 -0.482331 -0.027482
0.474591 -0.489237 -0.031189
0.524627 -0.495637 -0.026643
0.572265 -0.499142 -0.015791
0.739466 -0.499442 -0.023848
0.773362 -0.49899 -0.026902
0.804093 -0.499138 -0.04093
0.294889 -1.319241 0.008203
0.317612 -1.309137 0.016632
0.339241 -1.291316 0.028144
0.359514 -1.270993 0.012551
0.119913 -0.612231 0.007419
0.182107 -0.619749 0.036322
0.20837 -0.606644 0.044762
0.127064 -0.573984 0.0115
0.175294 -0.576208 0.032158
0.205809 -0.579524 0.043258
0.130182 -0.536534 0.006455
0.177458 -0.525678 0.017311
0.221541 -0.524972 0.030847
0.26964 -0.509076 0.036455
0.308273 -0.502323 0.046273
0.649365 -0.500954 0.007125
0.676508 -0.501384 0.024975
0.721308 -0.500947 0.02794
0.774803 -0.501586 0.013374
0.808714 -0.506527 0.008285
0.241853 -0.496666 0.009831
0.283717 -0.495958 0.019204
0.325372 -0.493098 0.021374
0.374523 -0.491876 0.027013
0.425137 -0.491653 0.031464
0.477876 -0.492867 0.022327
0.527694 -0.496746 0.023715
0.578833 -0.497808 0.025035
0.625589 -0.498875 0.023202
0.742528 -0.499905 0.004296
0.331922 -1.296817 0.060323
0.394537 -1.001686 0.083535
0.418127 -1.007321 0.094445
0.386706 -0.971307 0.078627
0.420453 -0.973594 0.093678
0.390258 -0.937337 0.079726
0.421452 -0.928282 0.09339
0.423519 -0.886487 0.096072
0.228052 -0.624472 0.056873
0.274538 -0.627894 0.07768
0.318864 -0.619627 0.09314
0.235866 -0.583821 0.053071
0.273614 -0.576932 0.066239
0.326419 -0.575251 0.088847
0.352946 -0.573906 0.099612
0.27347 -0.535459 0.059117
0.325801 -0.520185 0.072381
0.37138 -0.511062 0.080087
0.426976 -0.50277 0.089681
0.476355 -0.502382 0.092137
0.51821 -0.502661 0.081983
0.557395 -0.501154 0.084376
0.680052 -0.500981 0.074301
0.715423 -0.501649 0.078208
0.349105 -0.498167 0.052579
0.377922 -0.497164 0.054846
0.42998 -0.496929 0.068357
0.478482 -0.496183 0.063407
0.505906 -0.498763 0.053756
0.576597 -0.4985 0.066088
0.6271 -0.497594 0.075058
0.652294 -0.49878 0.071472
0.441993 -1.011194 0.102708
0.479916 -1.023554 0.114269
0.515455 -1.024159 0.121947
0.44354 -0.97843 0.101244
0.477426 -0.97633 0.110356
0.511975 -0.974904 0.11966
0.445099 -0.924948 0.101344
0.475036 -0.92549 0.110029
0.511841 -0.931819 0.121903
0.440147 -0.898307 0.100619
0.329275 -0.651989 0.106959
0.343585 -0.632713 0.105373
0.380121 -0.625766 0.114434
0.418406 -0.61829 0.122332
0.480879 -0.613866 0.139072
0.511029 -0.611002 0.149046
0.378693 -0.576657 0.108425
0.426305 -0.579068 0.122898
0.482826 -0.57445 0.140671
0.505988 -0.586718 0.147271
0.380529 -0.536153 0.102896
0.42523 -0.528374 0.114915
0.479183 -0.521778 0.125167
0.522116 -0.515199 0.127148
0.56913 -0.504498 0.134076
0.693595 -0.500213 0.10615
0.707626 -0.500024 0.102929
0.590249 -0.498743 0.120346
0.628136 -0.497349 0.125509
0.665695 -0.499268 0.113864
0.71301 -0.499359 0.109263
0.630565 -1.300342 0.196077
0.595097 -1.298272 0.188658
0.61404 -1.296186 0.19027
0.537556 -0.616355 0.158374
0.558552 -0.619834 0.166697
0.529349 -0.576596 0.160194
0.556183 -0.583568 0.170034
0.535348 -0.539226 0.160501
0.569211 -0.513815 0.159328
0.605438 -0.500213 0.161496
0.645457 -1.303614 0.204995
0.628253 -1.289032 0.207715
